           1256	       90.50089
     43.9284630	    -62.4165916	     76.5684891
     48.9676857	    -53.7871704	     77.5274811
     51.7107925	    -44.2638016	     76.6189880
     52.8180542	    -34.1616516	     75.1799927
     58.4658928	    -23.3561821	     67.6293716
     56.7431068	    -12.1932793	     66.0792923
     54.0293808	     -1.3243122	     64.6384659
     50.7255898	      8.9743023	     63.7041702
     47.1926308	     18.4555092	     63.6906776
     42.7772446	     26.9693451	     63.8051834
     37.5424690	     34.3719406	     64.0407715
     31.5517540	     40.5614090	     64.3639755
     24.8779259	     45.4720001	     64.7148819
     17.6229038	     49.0657120	     65.0199738
      9.9346333	     51.3230286	     65.2217941
      1.9992619	     52.2348938	     65.3027573
     -5.9854789	     51.7989273	     65.2684784
    -13.8218813	     50.0192261	     65.1159821
    -21.3149624	     46.9061508	     64.8468704
    -28.2948112	     42.4774437	     64.4998093
    -34.6374664	     36.7637672	     64.1447754
    -40.2583618	     29.8179779	     63.8513603
    -45.0912819	     21.7245827	     63.6669121
    -49.0733566	     12.6075172	     63.6113281
    -52.3414230	      2.6185036	     63.9090118
    -55.5021439	     -8.0822191	     65.2601395
    -57.7362556	    -19.1877365	     66.7631302
    -58.8692169	    -29.9693317	     68.2678909
    -58.7889824	    -40.1621475	     69.6774979
    -57.4534378	    -49.9807167	     70.9610062
    -53.8008766	    -59.1157265	     70.7141571
    -48.6590996	    -67.4320526	     69.6831360
    -42.7970963	    -74.8307114	     68.7172775
    -36.3229294	    -81.1907043	     67.8746185
    -29.3264637	    -86.4197235	     67.1928940
    -21.8874664	    -90.4495697	     66.6748581
    -14.0958233	    -93.2319489	     66.2877579
     -6.0752583	    -94.7367249	     66.0021362
      2.0288999	    -94.9607391	     66.0005493
     10.1047277	    -93.8943939	     66.1450882
     18.0289955	    -91.5516891	     66.4937668
     25.6571922	    -87.9513931	     66.9516983
     32.8849487	    -83.1354294	     67.5598450
     39.6305275	    -77.1636353	     68.3345184
     45.8109245	    -70.1177368	     69.2540588
     51.3274727	    -62.1062965	     70.2682877
     56.0633926	    -53.2688713	     71.3152847
     58.2827530	    -43.6864777	     70.4247894
     58.9808884	    -33.6344757	     69.0673370
     63.7607231	    -22.8986015	     60.8743134
     61.9279366	    -11.7106581	     59.5057106
     59.1922379	     -0.7824459	     58.2312241
     56.0026131	      9.6408520	     57.4279556
     52.7312584	     19.3405724	     57.4478683
     48.6063881	     28.1816177	     57.5400543
     43.6877251	     36.0330124	     57.7013054
     38.0628357	     42.7989311	     57.9457512
     31.7909889	     48.4170303	     58.2427940
     24.9337921	     52.8513107	     58.5340538
     17.5823288	     56.0844650	     58.7514687
      9.8764372	     58.1092987	     58.8592262
      1.9839422	     58.9217224	     58.8846321
     -5.9433508	     58.5198059	     58.8702240
    -13.7632713	     56.9067154	     58.7989502
    -21.3122635	     54.0898285	     58.6249275
    -28.4309044	     50.0781403	     58.3526497
    -35.0042839	     44.8857269	     58.0404472
    -40.9596100	     38.5399895	     57.7553406
    -46.2399216	     31.0905800	     57.5435410
    -50.7726402	     22.6177292	     57.4125023
    -54.4763184	     13.2367630	     57.3500862
    -57.5196762	      3.0840950	     57.5636864
    -60.6662178	     -7.7043848	     58.7657661
    -62.9638672	    -18.8495445	     60.0915375
    -64.2513733	    -29.6546288	     61.4244270
    -64.4325104	    -39.8879318	     62.6957474
    -63.4806023	    -49.7959518	     63.8966141
    -60.0616570	    -59.0919342	     63.6222076
    -55.1130028	    -67.6627350	     62.5990601
    -49.4476471	    -75.4203339	     61.5649643
    -43.1935349	    -82.2570648	     60.5958061
    -36.4576530	    -88.0908737	     59.7643547
    -29.3107033	    -92.8599167	     59.1052856
    -21.8101864	    -96.5192184	     58.6201630
    -14.0212660	    -99.0371094	     58.2788391
     -6.0393724	   -100.3937988	     58.0488358
      2.0158920	   -100.5867233	     58.0290184
     10.0469923	    -99.6120377	     58.1645508
     17.9467087	    -97.4770737	     58.4599419
     25.6010532	    -94.1953506	     58.8791199
     32.9318504	    -89.7945557	     59.4596939
     39.8809166	    -84.3141479	     60.2173996
     46.3860931	    -77.8084869	     61.1331177
     52.3635178	    -70.3514862	     62.1564217
     57.6830826	    -62.0398026	     63.1969032
     62.2368164	    -52.9995003	     64.2106781
     64.1027298	    -43.3046455	     63.4013519
     64.4788055	    -33.1993904	     62.1575623
     68.2833710	    -22.4063969	     53.3563690
     66.4087753	    -11.3060226	     52.2529106
     63.7116508	     -0.4349136	     51.2254524
     60.6425171	      9.9915905	     50.5861168
     57.6466942	     19.7781715	     50.6761055
     53.8595390	     28.8005638	     50.8259926
     49.3182030	     36.9394722	     51.0252876
     44.0698242	     44.1076889	     51.2565117
     38.1770630	     50.2463074	     51.5033035
     31.7260742	     55.3186417	     51.7675552
     24.7727070	     59.3076477	     51.9993210
     17.3961201	     62.2090683	     52.1282158
      9.7348909	     64.0230713	     52.1310616
      1.9512478	     64.7468491	     52.0887985
     -5.8499703	     64.3764267	     52.0991325
    -13.5904264	     62.9148483	     52.1231956
    -21.1301079	     60.3700333	     52.0497971
    -28.3084297	     56.7466660	     51.8513184
    -35.0176888	     52.0483627	     51.5848923
    -41.1983871	     46.2862778	     51.3183479
    -46.7790031	     39.4885330	     51.0708771
    -51.6804504	     31.7043610	     50.8460846
    -55.8499298	     23.0073967	     50.6636543
    -59.2455025	     13.5016861	     50.5381050
    -62.0821381	      3.3098564	     50.6621246
    -65.1575546	     -7.4453058	     51.6335182
    -67.4543228	    -18.5145531	     52.7006912
    -68.8275757	    -29.2336140	     53.7780457
    -69.1986923	    -39.3997917	     54.8192825
    -68.5583496	    -49.2826309	     55.8280792
    -65.4551544	    -58.6274643	     55.5853539
    -60.7919006	    -67.3308563	     54.6649742
    -55.4521637	    -75.3162918	     53.7311935
    -49.5140572	    -82.4833679	     52.8073769
    -43.0587502	    -88.7545319	     51.9226799
    -36.1909828	    -94.0746918	     51.1409187
    -28.9989815	    -98.4053497	     50.5260544
    -21.5251045	   -101.7171555	     50.0795250
    -13.8164597	   -103.9894791	     49.7750664
     -5.9479647	   -105.2098389	     49.5890579
      1.9846346	   -105.3755798	     49.5610657
      9.8963041	   -104.4860535	     49.6817169
     17.6962051	   -102.5451508	     49.9370232
     25.2947903	    -99.5624695	     50.3193703
     32.6326561	    -95.5560913	     50.8586502
     39.6686134	    -90.5518494	     51.5695152
     46.3458557	    -84.5850449	     52.4248047
     52.5529099	    -77.7035675	     53.3419380
     58.2017822	    -69.9760590	     54.2821922
     63.2128830	    -61.4932709	     55.2189713
     67.5093460	    -52.3694382	     56.1323700
     69.0088196	    -42.6753502	     55.4295921
     69.1355667	    -32.6256332	     54.3995857
     71.9746628	    -21.8868217	     45.1878929
     70.0973892	    -10.7754211	     44.3913155
     67.4449844	      0.1234550	     43.6540833
     64.4829407	     10.6116791	     43.2362289
     61.6512184	     20.5101051	     43.4048805
     58.0663643	     29.6960869	     43.6199799
     53.7579460	     38.0569229	     43.8728218
     48.7634430	     45.5097046	     44.1489067
     43.1298447	     51.9984055	     44.4308472
     36.9151840	     57.4892654	     44.7009392
     30.1910915	     61.9651718	     44.9448853
     23.0248108	     65.4216156	     45.1255646
     15.4934063	     67.8635559	     45.1584930
      7.7611756	     69.2953415	     45.0382423
     -0.0000030	     69.7108383	     44.9454422
     -7.7611732	     69.1027756	     45.0270767
    -15.4934044	     67.4791412	     45.1362038
    -23.0248051	     64.8503418	     45.0924416
    -30.1910973	     61.2160721	     44.9014473
    -36.9151802	     56.5733414	     44.6478310
    -43.1298447	     50.9282837	     44.3687973
    -48.7634468	     44.2998047	     44.0787544
    -53.7579460	     36.7231026	     43.7954826
    -58.0663643	     28.2553558	     43.5364380
    -61.6512146	     18.9804420	     43.3161888
    -64.4829407	      9.0117588	     43.1434593
    -67.4449844	     -1.5499592	     43.5570564
    -70.0973892	    -12.5146494	     44.2904778
    -71.9746628	    -23.6726303	     45.0843468
    -72.8887100	    -33.9238625	     45.8425293
    -72.8980179	    -43.9971008	     46.6019592
    -71.5753937	    -53.7118568	     47.0931511
    -67.4663544	    -62.8443832	     46.2853813
    -62.6731148	    -71.3675537	     45.4602737
    -57.2589302	    -79.1761017	     44.6315231
    -51.2898026	    -86.1863632	     43.8180656
    -44.8355293	    -92.3347015	     43.0427704
    -37.9705391	    -97.5750046	     42.3322792
    -30.7789192	   -101.8762817	     41.7267838
    -23.3406353	   -105.2189941	     41.2772102
    -15.6899900	   -107.5872421	     40.9664421
     -7.8838720	   -108.9713440	     40.7772484
      0.0000008	   -109.3672028	     40.7090302
      7.8838730	   -108.7757339	     40.7885895
     15.6899910	   -107.1979446	     40.9890137
     23.3406391	   -104.6398697	     41.3107910
     30.7789211	   -101.1126099	     41.7710609
     37.9705162	    -96.6329041	     42.3869019
     44.8355293	    -91.2222595	     43.1072731
     51.2897911	    -84.9137878	     43.8918533
     57.2589188	    -77.7554321	     44.7138939
     62.6731148	    -69.8125381	     45.5504379
     67.4663620	    -61.1704369	     46.3824387
     71.5754013	    -51.9359589	     47.1961174
     72.8980179	    -42.1883850	     46.7068291
     72.8887100	    -32.1153793	     45.9473915
     74.7961044	    -21.3480682	     36.5019188
     73.0060806	    -10.3346033	     36.0474586
     70.4880829	      0.4837971	     35.6344795
     67.6624603	     10.9276791	     35.4433250
     65.0023804	     20.8335228	     35.6920776
     61.6313553	     30.0807686	     35.9715996
     57.5730934	     38.5632553	     36.2748375
     52.8574677	     46.2019958	     36.5903664
     47.5219307	     52.9429855	     36.9045219
     41.6130333	     58.7532578	     37.2033157
     35.1876221	     63.6161880	     37.4738503
     28.3135891	     67.5264893	     37.7051697
     21.0529766	     70.4870758	     37.8642883
     13.4635658	     72.5089798	     37.8341408
      5.7458410	     73.5991745	     37.6078300
     -1.9110376	     73.7435608	     37.5176773
     -9.6032381	     72.9326172	     37.7180557
    -17.2909222	     71.1855698	     37.8550377
    -24.7300072	     68.5113373	     37.7645760
    -31.8020039	     64.9013672	     37.5492592
    -38.4609108	     60.3494110	     37.2875214
    -44.6358452	     54.8583450	     36.9924660
    -50.2645035	     48.4400711	     36.6761894
    -55.2953110	     41.1200638	     36.3523445
    -59.6864204	     32.9422493	     36.0350266
    -63.4043770	     23.9735909	     35.7370949
    -66.4225693	     14.3071709	     35.4680786
    -68.9744186	      4.0534191	     35.3486137
    -71.8344269	     -6.6721144	     35.7314720
    -73.9957199	    -17.6642761	     36.1641083
    -75.3434601	    -28.2944183	     36.6114922
    -75.8253708	    -38.3916779	     37.0542831
    -75.4543076	    -48.2514229	     37.4958954
    -72.7696457	    -57.6720543	     37.2009773
    -68.5868073	    -66.5560684	     36.4935036
    -63.7762718	    -74.8289948	     35.7794113
    -58.3902779	    -82.4024048	     35.0699959
    -52.4839516	    -89.2068405	     34.3794289
    -46.1165352	    -95.1901550	     33.7238426
    -39.3529167	   -100.3150558	     33.1214371
    -32.2645493	   -104.5562744	     32.5946693
    -24.9272404	   -107.8981323	     32.1751175
    -17.4464912	   -110.3367233	     31.9791565
     -9.7359123	   -111.8498001	     31.7671242
     -1.9460982	   -112.4382553	     31.5929680
      5.8410444	   -112.1138000	     31.6683102
     13.6127882	   -110.8717117	     31.8994217
     21.2156563	   -108.7055206	     32.0953522
     28.6222343	   -105.6301270	     32.4100990
     35.8446541	   -101.6579285	     32.8984871
     42.7799454	    -96.8003082	     33.4762802
     49.3539810	    -91.0792236	     34.1171951
     55.4985657	    -84.5273819	     34.8012314
     61.1518478	    -77.1906281	     35.5112610
     66.2567902	    -69.1309814	     36.2319832
     70.7598801	    -60.4284782	     36.9504204
     74.6099091	    -51.1826744	     37.6571846
     75.7489548	    -41.4809418	     37.3850746
     75.6884384	    -31.4854851	     36.9410133
     76.7324371	    -20.7989445	     27.4470959
     75.0816803	     -9.8029823	     27.3326416
     72.7276306	      1.0071125	     27.2434940
     70.0526047	     11.4624500	     27.2964458
     67.4871597	     21.4098282	     27.6315212
     64.2343216	     30.7264671	     27.9809132
     60.3146133	     39.3097687	     28.3383007
     55.7537117	     47.0829926	     28.6944733
     50.5838623	     53.9934387	     29.0388393
     44.8453064	     60.0088501	     29.3607368
     38.5875053	     65.1130905	     29.6504364
     31.8700790	     69.3014526	     29.8996944
     24.7631187	     72.5764160	     30.1019592
     17.3382969	     74.9445190	     30.2414150
      9.6201429	     76.4219208	     30.1400890
      1.9007748	     77.0142746	     29.8385220
     -5.7351160	     76.6881256	     29.9680920
    -13.5066471	     75.4581680	     30.2157097
    -21.0882416	     73.3499603	     30.1535473
    -28.3605061	     70.3491058	     29.9662437
    -35.2821083	     66.4463272	     29.7298107
    -41.7778244	     61.6388016	     29.4500637
    -47.7828140	     55.9287872	     29.1344929
    -53.2425842	     49.3274918	     28.7922134
    -58.1124573	     41.8596115	     28.4335823
    -62.3563576	     33.5680313	     28.0694256
    -65.9454880	     24.5178185	     27.7098656
    -68.8569107	     14.7991142	     27.3628845
    -71.3021240	      4.5207043	     27.1080284
    -73.9895325	     -6.1997814	     27.1779480
    -75.9979782	    -17.1742344	     27.2779465
    -77.2274094	    -27.7832108	     27.3944664
    -77.6345978	    -37.8641663	     27.5167503
    -77.2357559	    -47.7192688	     27.6416798
    -74.6900558	    -57.1697464	     27.2886620
    -70.7405090	    -66.1165161	     26.6724815
    -66.1728516	    -74.4804535	     26.0572090
    -61.0312729	    -82.1764069	     25.4512615
    -55.3624344	    -89.1372147	     24.8646736
    -49.2165451	    -95.3122177	     24.3080959
    -42.6489601	   -100.6648712	     23.7922955
    -35.7222404	   -105.1701508	     23.3288383
    -28.5598259	   -108.8154297	     22.9800053
    -21.2356968	   -111.5941010	     22.8150005
    -13.6229286	   -113.4873962	     22.6592350
     -5.8237033	   -114.4856262	     22.3945866
      1.9360024	   -114.6052246	     22.2904491
      9.7307367	   -113.8568344	     22.5528049
     17.4638805	   -112.2189484	     22.7703438
     24.9367256	   -109.6961288	     22.9274311
     32.1462173	   -106.3021469	     23.1675224
     39.2262230	   -102.0513687	     23.6096401
     45.9817352	    -96.9522705	     24.1105652
     52.3457947	    -91.0267639	     24.6572723
     58.2597198	    -84.3067398	     25.2387009
     63.6709366	    -76.8367767	     25.8440628
     68.5312195	    -68.6767502	     26.4628487
     72.7952423	    -59.9037628	     27.0856171
     76.4197540	    -50.6133041	     27.7051296
     77.5379105	    -40.9047928	     27.6908550
     77.5296707	    -30.9194183	     27.5663586
     77.7933655	    -20.2484055	     18.1799297
     76.3316422	     -9.1995745	     18.3847218
     74.1728439	      1.6661892	     18.6001225
     71.6603317	     12.1843987	     18.8891048
     69.1265564	     22.2066193	     19.3158092
     65.9131165	     31.6058159	     19.7391663
     62.0390587	     40.2804947	     20.1530762
     57.5281715	     48.1547928	     20.5501175
     52.4103241	     55.1766815	     20.9224319
     46.7229118	     61.3145752	     21.2625484
     40.5121651	     66.5530014	     21.5639019
     33.8341331	     70.8879776	     21.8211040
     26.7551403	     74.3228073	     22.0300007
     19.3515511	     76.8644180	     22.1875610
     11.7057066	     78.5207596	     22.2879906
      3.8408995	     79.3135223	     22.0552597
     -3.8409061	     79.2182236	     22.0497341
    -11.7057047	     78.2303238	     22.2711506
    -19.3515453	     76.3842850	     22.1597214
    -26.7551384	     73.6589737	     21.9915085
    -33.8341370	     70.0485077	     21.7724266
    -40.5121689	     65.5478210	     21.5056190
    -46.7229195	     60.1553040	     21.1953316
    -52.4103317	     53.8762894	     20.8470345
    -57.5281639	     46.7274323	     20.4673557
    -62.0390549	     38.7412148	     20.0638256
    -65.9131165	     29.9704132	     19.6443405
    -69.1265564	     20.4914818	     19.2163620
    -71.6603317	     10.4063950	     18.7860126
    -74.1728439	     -0.1741581	     18.4934158
    -76.3316498	    -11.0934868	     18.2749081
    -77.7933655	    -22.1785870	     18.0680141
    -78.4289093	    -32.3629417	     17.8858433
    -78.2937622	    -42.3947906	     17.7091141
    -77.0672150	    -52.1290512	     17.4716034
    -73.6453018	    -61.4107857	     16.9151268
    -69.5815811	    -70.1670837	     16.3667355
    -64.9144058	    -78.3049088	     15.8327312
    -59.6841583	    -85.7492294	     15.3204069
    -53.9338951	    -92.4421616	     14.8372803
    -47.7103462	    -98.3410263	     14.3903875
    -41.0654259	   -103.4157867	     13.9858294
    -34.0721016	   -107.6468887	     13.6354427
    -26.9422417	   -111.0287933	     13.4368582
    -19.4859295	   -113.5444794	     13.2862329
    -11.7878332	   -115.1898727	     13.1838293
     -3.8995714	   -115.9520035	     12.9444895
      3.8995731	   -115.8552399	     12.9500999
     11.7878370	   -114.8973923	     13.2007875
     19.4859295	   -113.0610123	     13.3142662
     26.9422436	   -110.3603210	     13.4756174
     34.0721016	   -106.8015060	     13.6844597
     41.0654259	   -102.3968887	     14.0449076
     47.7103462	    -97.1572571	     14.4590254
     53.9338951	    -91.1039734	     14.9148703
     59.6841621	    -84.2683716	     15.4062719
     64.9144058	    -76.6942749	     15.9261198
     69.5815811	    -68.4406586	     16.4668369
     73.6453018	    -59.5835304	     17.0210762
     77.0672150	    -50.2168961	     17.5824757
     78.2937622	    -40.4522018	     17.8217506
     78.4289169	    -30.4169731	     17.9986744
     78.0137634	    -19.7049637	      8.8547087
     76.8055115	     -8.7107525	      9.3330593
     74.9108963	      2.1059132	      9.8089533
     72.5887146	     12.5866280	     10.2965822
     70.1071320	     22.5885391	     10.8121977
     66.9593048	     31.9840393	     11.3061810
     63.1629982	     40.6735687	     11.7727242
     58.7403297	     48.5822983	     12.2062883
     53.7190094	     55.6586075	     12.6019268
     48.1337624	     61.8708572	     12.9554996
     42.0276070	     67.2033310	     13.2637634
     35.4528656	     71.6518173	     13.5243368
     28.4717216	     75.2194977	     13.7355852
     21.1561604	     77.9134140	     13.8964682
     13.5871162	     79.7416611	     14.0063753
      5.8529315	     80.7113800	     14.0649996
     -1.9170307	     80.8342743	     13.9627476
     -9.7349129	     80.0919266	     14.0281038
    -17.3979473	     78.5036011	     13.9327898
    -24.8508778	     76.0585861	     13.7866182
    -32.0088234	     72.7511826	     13.5901546
    -38.7951660	     68.5754166	     13.3443165
    -45.1427650	     63.5274734	     13.0505190
    -50.9944038	     57.6087875	     12.7108316
    -56.3025131	     50.8299484	     12.3281288
    -61.0283813	     43.2150612	     11.9061575
    -65.1409378	     34.8060532	     11.4495258
    -68.6154709	     25.6664543	     10.9635477
    -71.4321671	     15.8838615	     10.4539642
    -73.7175903	      5.5680714	      9.9384689
    -75.9417267	     -5.1541548	      9.4623442
    -77.4976807	    -16.1189251	      8.9824276
    -78.3150101	    -26.7145844	      8.5225372
    -78.3619385	    -36.7859230	      8.0863161
    -77.6477280	    -46.6413574	      7.6579447
    -75.2923813	    -56.1368523	      7.1620207
    -71.8109436	    -65.1653366	      6.6417685
    -67.7054672	    -73.6355286	      6.1442842
    -63.0110130	    -81.4651489	      5.6751657
    -57.7650070	    -88.5890427	      5.2397137
    -52.0078087	    -94.9578629	      4.8426743
    -45.7836685	   -100.5358810	      4.4880524
    -39.1416931	   -105.2984695	      4.1789570
    -32.2332764	   -109.2317886	      3.9377933
    -25.0238361	   -112.3241043	      3.7565670
    -17.5181217	   -114.5681381	      3.6240633
     -9.8017445	   -115.9611816	      3.5413404
     -1.9439657	   -116.4975433	      3.4313264
      5.8930612	   -116.1920166	      3.5273371
     13.6806517	   -115.0316925	      3.5961113
     21.3028431	   -113.0238190	      3.7147946
     28.6706657	   -110.1723404	      3.8824213
     35.7021446	   -106.4833221	      4.0975761
     42.5116234	   -101.9655075	      4.3888168
     48.9511566	    -96.6329422	      4.7302666
     54.9476509	    -90.5070038	      5.1151733
     60.4545021	    -83.6187897	      5.5398903
     65.4295883	    -76.0114594	      5.9999685
     69.8340607	    -67.7430878	      6.4902925
     73.6317749	    -58.8881302	      7.0053329
     76.7886810	    -49.5384712	      7.5393934
     78.1013260	    -39.8111038	      7.9832802
     78.4321747	    -29.8227978	      8.4165058
     77.4670792	    -19.1873360	     -0.1899633
     76.8021011	     -8.1349850	      0.5033182
     75.2952194	      2.7778988	      1.1859503
     73.2647552	     13.3908348	      1.8418579
     70.8798904	     23.5545807	      2.4560249
     67.8067780	     33.1345139	      3.0310540
     64.0614243	     42.0249443	      3.5607934
     59.6647873	     50.1456604	      4.0410404
     54.6437531	     57.4404831	      4.4692984
     49.0323563	     63.8740311	      4.8444281
     42.8729515	     69.4274216	      5.1662636
     36.2172508	     74.0935440	      5.4352527
     29.1270199	     77.8727722	      5.6521506
     21.6740990	     80.7689972	      5.8177757
     13.9398012	     82.7869110	      5.9328475
      6.0135202	     83.9297714	      5.9978638
     -2.0080063	     84.1235809	      6.0087934
     -9.9948063	     83.2196350	      5.9572134
    -17.8366985	     81.4449463	      5.8559341
    -25.4410267	     78.7997208	      5.7047224
    -32.7222023	     75.2819443	      5.5030861
    -39.6035271	     70.8888626	      5.2503452
    -46.0181503	     65.6196136	      4.9457865
    -51.9094124	     59.4784622	      4.5888538
    -57.2303810	     52.4789810	      4.1794329
    -61.9429932	     44.6486435	      3.7181811
    -66.0169449	     36.0335426	      3.2069173
    -69.4284744	     26.7021065	      2.6489818
    -72.1591797	     16.7477226	      2.0495601
    -74.2873917	      6.2877941	      1.4128165
    -76.1346283	     -4.5398445	      0.7371634
    -77.2942734	    -15.5714455	      0.0460982
    -77.6824799	    -26.1894531	     -0.6202967
    -77.5237274	    -36.2791519	     -1.2533457
    -76.6052856	    -46.1612396	     -1.8720090
    -74.3391190	    -55.7004967	     -2.4466283
    -71.0938568	    -64.7842407	     -2.9805825
    -67.2054291	    -73.3146820	     -3.4786079
    -62.7062111	    -81.2081451	     -3.9362004
    -57.6314583	    -88.3980942	     -4.3501358
    -52.0198975	    -94.8339844	     -4.7182932
    -45.9144783	   -100.4789429	     -5.0394249
    -39.3632317	   -105.3073349	     -5.3129387
    -32.4635162	   -109.3021774	     -5.5422163
    -25.2129040	   -112.4521408	     -5.7239885
    -17.6577511	   -114.7504272	     -5.8562183
     -9.8839540	   -116.1931915	     -5.9390354
     -1.9836664	   -116.7783279	     -5.9725485
      5.9437160	   -116.4455643	     -5.9533997
     13.7925434	   -115.2366943	     -5.8839531
     21.4682121	   -113.1753616	     -5.7654028
     28.8813648	   -110.2666931	     -5.5977535
     35.9498405	   -106.5177841	     -5.3810005
     42.6913452	   -101.9372101	     -5.1207342
     49.0260239	    -96.5407639	     -4.8142576
     54.8902130	    -90.3509750	     -4.4610653
     60.2384377	    -83.3999634	     -4.0621204
     65.0300446	    -75.7320709	     -3.6191332
     69.2280807	    -67.4066162	     -3.1348069
     72.7988052	    -58.4993553	     -2.6130292
     75.7111740	    -49.1035233	     -2.0590456
     77.1606750	    -39.3400116	     -1.4540582
     77.6967468	    -29.3240070	     -0.8262422
     76.2478409	    -18.7160740	     -8.5793772
     77.3234482	     -7.3400183	     -7.7191868
     75.9938889	      3.8663921	     -6.8794680
     74.0321045	     14.7502365	     -6.0905352
     71.5186081	     25.1534576	     -5.3767862
     68.2873459	     34.9366722	     -4.7237530
     64.3581314	     43.9912033	     -4.1375732
     59.7555847	     52.2360535	     -3.6205757
     54.5100479	     59.6156693	     -3.1722162
     48.6588821	     66.0958710	     -2.7900856
     42.2479477	     71.6588898	     -2.4708254
     35.3329239	     76.2982483	     -2.2108285
     27.9801846	     80.0141678	     -2.0067184
     20.2669106	     82.8098145	     -1.8556416
     12.2804775	     84.6886139	     -1.7554231
      4.1167250	     85.6524811	     -1.7046227
     -4.1167321	     85.5503387	     -1.7105451
    -12.2804747	     84.3839188	     -1.7730901
    -20.2669067	     82.3069611	     -1.8847983
    -27.9801826	     79.3199234	     -2.0469720
    -35.3329315	     75.4215775	     -2.2616599
    -42.2479515	     70.6106339	     -2.5316055
    -48.6588821	     64.8885498	     -2.8600881
    -54.5100517	     58.2631760	     -3.2506373
    -59.7555847	     50.7534409	     -3.7065427
    -64.3581238	     42.3943863	     -4.2301607
    -68.2873383	     33.2423592	     -4.8219919
    -71.5186081	     23.3789749	     -5.4796753
    -74.0321045	     12.9133911	     -6.1970396
    -75.9938889	      1.9808617	     -6.9887953
    -77.3234482	     -9.2585382	     -7.8304272
    -76.5114899	    -20.6111794	     -8.6892605
    -76.4888077	    -30.8572559	     -9.4651527
    -75.6984177	    -40.9585724	    -10.2238436
    -74.0385818	    -50.7756462	    -10.9359255
    -71.2617798	    -60.1799088	    -11.5469847
    -67.7979431	    -69.0601044	    -12.1095343
    -63.6777725	    -77.3211365	    -12.6190081
    -58.9352112	    -84.8861771	    -13.0734930
    -53.6078224	    -91.6958389	    -13.4732075
    -47.7373161	    -97.7061310	    -13.8198862
    -41.3700027	   -102.8858566	    -14.1162271
    -34.5559120	   -107.2137604	    -14.3649530
    -27.3367691	   -110.6759415	    -14.5627966
    -19.7799416	   -113.2635956	    -14.7085104
    -11.9726849	   -114.9713974	    -14.8035975
     -4.0093403	   -115.7962799	    -14.8490915
      4.0093417	   -115.6968079	    -14.8433237
     11.9726858	   -114.6743317	    -14.7863722
     19.7799435	   -112.7728271	    -14.6800547
     27.3367710	   -109.9976654	    -14.5234671
     34.5559120	   -106.3563766	    -14.3152399
     41.3700027	   -101.8593979	    -14.0567102
     47.7373161	    -96.5216904	    -13.7512074
     53.6078224	    -90.3657455	    -13.3960848
     58.9352112	    -83.4239120	    -12.9887066
     63.6777725	    -75.7411957	    -12.5273991
     67.7979431	    -67.3779297	    -12.0119963
     71.2617798	    -58.4117813	    -11.4444637
     74.0385818	    -48.9386368	    -10.8294115
     75.6984177	    -39.0803795	    -10.1149416
     76.4888077	    -28.9594231	     -9.3551102
     74.4053650	    -18.2658730	    -16.7393723
     75.8811264	     -6.8783722	    -15.7805090
     74.7588806	      4.3376141	    -14.8480368
     72.9167404	     15.2294159	    -13.9720068
     70.3714447	     25.6360970	    -13.1736345
     67.0946121	     35.4177017	    -12.4553280
     63.1047821	     44.4615860	    -11.8233070
     58.4265900	     52.6824570	    -11.2782545
     53.0919113	     60.0207825	    -10.8168478
     47.1411743	     66.4391098	    -10.4333811
     40.6245804	     71.9172897	    -10.1211634
     33.6030769	     76.4474258	     -9.8735580
     26.1487827	     80.0290527	     -9.6846457
     18.3447285	     82.6651611	     -9.5495911
     10.2837324	     84.3591003	     -9.4648075
      2.0664251	     85.1126938	     -9.4280052
     -6.1880956	     84.6998978	     -9.4494038
    -14.3402081	     83.2739334	     -9.5217190
    -22.2848816	     80.9121475	     -9.6426992
    -29.9250832	     77.6141891	     -9.8151455
    -37.1726990	     73.3787155	    -10.0431538
    -43.9500542	     68.2059784	    -10.3320189
    -50.1906548	     62.1012421	    -10.6879873
    -55.8390007	     55.0793076	    -11.1177454
    -60.8499184	     47.1694107	    -11.6275845
    -65.1874313	     38.4204254	    -12.2221556
    -68.8234406	     28.9051132	    -12.9029493
    -71.7364807	     18.7229118	    -13.6666517
    -73.9204330	      8.0003166	    -14.5062647
    -75.4132614	     -3.1116734	    -15.4178247
    -76.1601868	    -14.4431305	    -16.3675671
    -74.8700485	    -25.2522163	    -17.2796059
    -74.2554855	    -35.4467850	    -18.1315784
    -72.8607178	    -45.4219093	    -18.9457664
    -70.6278839	    -55.0408440	    -19.6866360
    -67.6409607	    -64.1799622	    -20.3589115
    -63.9613953	    -72.7325821	    -20.9660530
    -59.6372490	    -80.6105347	    -21.5123310
    -54.6825867	    -87.7443161	    -21.9937096
    -49.1071587	    -94.0814896	    -22.4028568
    -42.9594727	    -99.5838928	    -22.7434654
    -36.2976227	   -104.2249222	    -23.0199051
    -29.1897430	   -107.9867096	    -23.2365551
    -21.7140141	   -110.8577118	    -23.3973408
    -13.9579315	   -112.8307419	    -23.5054379
     -6.0167918	   -113.9016113	    -23.5631199
      2.0081725	   -114.0481873	    -23.5706120
     10.0042744	   -113.2309189	    -23.5260849
     17.8652058	   -111.5135269	    -23.4321098
     25.4925785	   -108.9015808	    -23.2870369
     32.7947693	   -105.4028854	    -23.0882645
     39.6887856	   -101.0286407	    -22.8323288
     46.1014328	    -95.7951050	    -22.5151405
     51.9696426	    -89.7257233	    -22.1323433
     57.2401772	    -82.8538818	    -21.6798801
     61.8734818	    -75.2255478	    -21.1562424
     65.8856964	    -66.9008255	    -20.5759697
     69.2229233	    -57.9599304	    -19.9311066
     71.8525162	    -48.5011597	    -19.2242146
     73.6561966	    -38.6430588	    -18.4388180
     74.6596146	    -28.5155163	    -17.6014786
     72.2367249	    -17.8301010	    -24.7205067
     73.6800690	     -6.4031506	    -23.6598473
     72.5876541	      4.8456783	    -22.6316566
     70.7102432	     15.7531815	    -21.6657562
     68.0576477	     26.1507683	    -20.7859859
     64.6451797	     35.8933525	    -20.0071735
     60.4943047	     44.8637085	    -19.3352242
     55.6337700	     52.9734116	    -18.7686882
     50.1007996	     60.1610184	    -18.3010159
     43.9424286	     66.3879166	    -17.9229145
     37.2167282	     71.6331711	    -17.6242638
     29.9936180	     75.8880615	    -17.3954754
     22.3549805	     79.1510849	    -17.2283344
     14.3940086	     81.4238739	    -17.1163921
      6.2135134	     82.7081070	    -17.0551338
     -2.0750899	     82.9281006	    -17.0456276
    -10.3244600	     81.9333344	    -17.0944843
    -18.4085579	     79.9543839	    -17.1922722
    -26.2206650	     76.9929123	    -17.3423710
    -33.6625061	     73.0494003	    -17.5501175
    -40.6464043	     68.1255112	    -17.8227558
    -47.0964241	     62.2276764	    -18.1691551
    -52.9486427	     55.3716354	    -18.5992088
    -58.1506271	     47.5877686	    -19.1227570
    -62.6604233	     38.9265480	    -19.7479305
    -66.4452133	     29.4633369	    -20.4789848
    -69.4800262	     19.3014946	    -21.3139153
    -71.7465897	      8.5729733	    -22.2424488
    -73.2323990	     -2.5643501	    -23.2451267
    -73.9302368	    -13.9324989	    -24.2941437
    -72.6564560	    -24.7836132	    -25.3046513
    -71.9617538	    -35.0163841	    -26.2510376
    -70.4878159	    -45.0178986	    -27.1582146
    -68.2401581	    -54.6438408	    -28.0042591
    -65.2310562	    -63.7644157	    -28.7730446
    -61.4800873	    -72.2678375	    -29.4548798
    -57.0148201	    -80.0619812	    -30.0460835
    -51.8714485	    -87.0741882	    -30.5478268
    -46.0955200	    -93.2495804	    -30.9646091
    -39.7426834	    -98.5484619	    -31.3027935
    -32.8793793	   -102.9431458	    -31.5692921
    -25.5828743	   -106.4152603	    -31.7707081
    -17.9411297	   -108.9529419	    -31.9126835
    -10.0513229	   -110.5490265	    -31.9995594
     -2.0180354	   -111.1995010	    -32.0341797
      6.0458937	   -110.8425980	    -32.0145836
     14.0208406	   -109.5211258	    -31.9426212
     21.7993031	   -107.2605667	    -31.8174610
     29.2800159	   -104.0689087	    -31.6356297
     36.3702850	    -99.9577408	    -31.3922482
     42.9873276	    -94.9439850	    -31.0812511
     49.0593300	    -89.0520477	    -30.6958904
     54.5252686	    -82.3168030	    -30.2294712
     59.3346939	    -74.7863617	    -29.6764717
     63.4467735	    -66.5252838	    -29.0339146
     66.8297501	    -57.6165771	    -28.3029213
     69.4600906	    -48.1629143	    -27.4901066
     71.3219986	    -38.2857285	    -26.6084099
     72.4066162	    -28.1229477	    -25.6770248
     69.5662384	    -17.4133720	    -32.4809494
     70.8560257	     -6.0692539	    -31.3140354
     69.7256317	      5.0930290	    -30.1859760
     67.7842331	     15.9023132	    -29.1327019
     65.0428848	     26.1842422	    -28.1821747
     61.5191879	     35.7887802	    -27.3510189
     57.2381516	     44.5946274	    -26.6448097
     52.2333641	     52.5102310	    -26.0601215
     46.5482254	     59.4716339	    -25.5875397
     40.2372665	     65.4382248	    -25.2145901
     33.3672104	     70.3871841	    -24.9281902
     26.0174465	     74.3079147	    -24.7162800
     18.2798328	     77.1968307	    -24.5688190
     10.2573910	     79.0534210	    -24.4782372
      2.0621009	     79.8771973	    -24.4396286
     -6.1740828	     79.4413147	    -24.4615250
    -14.2973862	     77.8994446	    -24.5373535
    -22.1909275	     75.3308182	    -24.6669502
    -29.7468300	     71.7383423	    -24.8563995
    -36.8674622	     67.1260529	    -25.1144009
    -43.4670868	     61.5025787	    -25.4519691
    -49.4727020	     54.8857422	    -25.8817310
    -54.8237648	     47.3080521	    -26.4166355
    -59.4714508	     38.8223763	    -27.0678921
    -63.3774490	     29.5069847	    -27.8422623
    -66.5126190	     19.4689331	    -28.7389698
    -68.8557587	      8.8447819	    -29.7470436
    -70.3926544	     -2.2021885	    -30.8440685
    -71.1152496	    -13.4879456	    -31.9970760
    -69.9495926	    -24.2682419	    -33.1100426
    -69.2253571	    -34.4337120	    -34.1513252
    -67.6952667	    -44.3581238	    -35.1454353
    -65.3663712	    -53.8911667	    -36.0663071
    -62.2532463	    -62.8977623	    -36.8952522
    -58.3788033	    -71.2616425	    -37.6216850
    -53.7750092	    -78.8870163	    -38.2425003
    -48.4835472	    -85.6983871	    -38.7604828
    -42.5566673	    -91.6386566	    -39.1823387
    -36.0578041	    -96.6663589	    -39.5167732
    -29.0620594	   -100.7525864	    -39.7729034
    -21.6561165	   -103.8779373	    -39.9591103
    -13.9372807	   -106.0299988	    -40.0823021
     -6.0119200	   -107.2013092	    -40.1474686
      2.0068443	   -107.3680801	    -40.1563950
      9.9934874	   -106.4906082	    -40.1075249
     17.8293438	   -104.6338120	    -40.0025711
     25.4045029	   -101.8059616	    -39.8377266
     32.6168938	    -98.0192719	    -39.6071510
     39.3743210	    -93.2917023	    -39.3032646
     45.5958443	    -87.6490250	    -38.9173088
     51.2122269	    -81.1277771	    -38.4403191
     56.1657143	    -73.7782440	    -37.8644371
     60.4094086	    -65.6676788	    -37.1847305
     63.9066010	    -56.8824081	    -36.4011841
     66.6299438	    -47.5292320	    -35.5205269
     68.5607758	    -37.7346382	    -34.5574226
     69.6883698	    -27.6421852	    -33.5344620
     66.2178192	    -17.0251999	    -39.8944473
     67.3026123	     -5.6855240	    -38.6190376
     66.0984650	      5.4614906	    -37.3898125
     64.0333023	     16.2280579	    -36.2496986
     61.1207733	     26.4270821	    -35.2311020
     57.3829842	     35.8980675	    -34.3522797
     52.8515968	     44.5118866	    -33.6179314
     47.5691490	     52.1715775	    -33.0220375
     41.5903511	     58.8096085	    -32.5517731
     34.9833641	     64.3828964	    -32.1912384
     27.8304749	     68.8666534	    -31.9244251
     20.2281036	     72.2482376	    -31.7371960
     12.2857199	     74.5217896	    -31.6183414
      4.1236567	     75.6841507	    -31.5601406
     -4.1236544	     75.5818253	    -31.5660725
    -12.2857180	     74.2169571	    -31.6360188
    -20.2281036	     71.7463608	    -31.7663021
    -27.8304787	     68.1761322	    -31.9644642
    -34.9833679	     63.5149002	    -32.2415657
    -41.5903473	     57.7776794	    -32.6116028
    -47.5691490	     50.9913101	    -33.0904732
    -52.8515968	     43.2005692	    -33.6939659
    -57.3829842	     34.4743156	    -34.4348412
    -61.1207733	     24.9105759	    -35.3190308
    -64.0333023	     14.6392975	    -36.3418198
    -66.0984650	      3.8214798	    -37.4849052
    -67.3026123	     -7.3554010	    -38.7158623
    -66.6157990	    -18.6731110	    -39.9899940
    -66.2667923	    -28.9087067	    -41.1428719
    -65.0593567	    -38.9682312	    -42.2572594
    -62.9989166	    -48.6824646	    -43.2986450
    -60.0996628	    -57.8962440	    -44.2406921
    -56.3854637	    -66.4736786	    -45.0670815
    -51.8907738	    -74.3008194	    -45.7713547
    -46.6614723	    -81.2864304	    -46.3552170
    -40.7557030	    -87.3603439	    -46.8260612
    -34.2444992	    -92.4709320	    -47.1944160
    -27.2122211	    -96.5816116	    -47.4716568
    -19.7560883	    -99.6675720	    -47.6683693
    -11.9851952	   -101.7127914	    -47.7932396
     -4.0181541	   -102.7077637	    -47.8523636
      4.0181561	   -102.6080627	    -47.8465805
     11.9851971	   -101.4154282	    -47.7759972
     19.7560902	    -99.1773987	    -47.6399498
     27.2121964	    -95.9064484	    -47.4325104
     34.2444992	    -91.6212769	    -47.1451530
     40.7557030	    -86.3491364	    -46.7674294
     46.6614838	    -80.1286697	    -46.2880859
     51.8907623	    -73.0133438	    -45.6967049
     56.3854637	    -65.0746536	    -44.9859619
     60.0996628	    -56.4050827	    -44.1542320
     62.9989128	    -47.1193848	    -43.2080154
     65.0593567	    -37.3540230	    -42.1636696
     66.2667923	    -27.2645226	    -41.0475388
     62.2111740	    -16.6696281	    -46.8869781
     63.0634689	     -5.4559679	    -45.5238342
     61.7891235	      5.5552444	    -44.2130203
     59.6069984	     16.1600342	    -43.0034676
     56.5343513	     26.1590843	    -41.9312782
     52.5992889	     35.3816872	    -41.0159798
     47.8421021	     43.6907578	    -40.2614174
     42.3166809	     50.9833755	    -39.6593628
     36.0916977	     57.1876068	    -39.1942291
     29.2515545	     62.2568817	    -38.8475418
     21.8965034	     66.1632614	    -38.6013794
     14.1417942	     68.8909912	    -38.4405861
      6.1154943	     70.4312210	    -38.3540382
     -2.0432038	     70.7034302	    -38.3393211
    -10.1541710	     69.5580139	    -38.4031601
    -18.0613689	     67.2269897	    -38.5370979
    -25.6315193	     63.7206802	    -38.7498016
    -32.7426262	     59.0538254	    -39.0543442
    -39.2867317	     53.2502060	    -39.4673309
    -45.1714897	     46.3485107	    -40.0071754
    -50.3204231	     38.4090996	    -40.6912880
    -54.6724014	     29.5203171	    -41.5320969
    -58.1805115	     19.8031502	    -42.5322914
    -60.8106956	      9.4126759	    -43.6804428
    -62.5404625	     -1.4646358	    -44.9485970
    -63.3574409	    -12.6180010	    -46.2931671
    -62.4791985	    -23.2982578	    -47.5965462
    -61.6478081	    -33.3644371	    -48.8139343
    -59.9116974	    -43.1478348	    -49.9664154
    -57.2841110	    -52.4729691	    -51.0190887
    -53.7895622	    -61.1829453	    -51.9482384
    -49.4649811	    -69.1437073	    -52.7421455
    -44.3606033	    -76.2458115	    -53.3996620
    -38.5409050	    -82.4036713	    -53.9274864
    -32.0851631	    -87.5531311	    -54.3369141
    -25.0876999	    -91.6480560	    -54.6409111
    -17.6571560	    -94.6567993	    -54.8518105
     -9.9150381	    -96.5587769	    -54.9796867
     -1.9926910	    -97.3421478	    -55.0313950
      5.9678731	    -96.9426804	    -55.0061913
     13.8170309	    -95.4042282	    -54.9057426
     21.4192295	    -92.7582779	    -54.7264900
     28.6476784	    -89.0238953	    -54.4600677
     35.3869820	    -84.2297211	    -54.0952873
     41.5355682	    -78.4166870	    -53.6193962
     47.0065651	    -71.6417007	    -53.0200539
     51.7282143	    -63.9809456	    -52.2879753
     55.6432076	    -55.5331955	    -51.4200592
     58.7080803	    -46.4213638	    -50.4225311
     60.8922691	    -36.7919807	    -49.3131027
     62.1770172	    -26.8124733	    -48.1213570
     57.5716820	    -16.3503952	    -53.3886375
     58.1597900	     -5.1646566	    -51.9342613
     56.7618637	      5.7959538	    -50.5403671
     54.3748283	     16.2974892	    -49.2635231
     51.0230980	     26.1168633	    -48.1441650
     46.7462273	     35.0643883	    -47.2026825
     41.6004791	     42.9891052	    -46.4410820
     35.6602898	     49.7787781	    -45.8478737
     29.0191727	     55.3554153	    -45.4041138
     21.7899227	     59.6683044	    -45.0888252
     14.1035357	     62.6863022	    -44.8829994
      6.1066308	     64.3908844	    -44.7721443
     -2.0408385	     64.6963654	    -44.7523155
    -10.1342239	     63.4521408	    -44.8309708
    -17.9950352	     60.8940735	    -44.9991455
    -25.4702873	     57.0401917	    -45.2683220
    -32.4207535	     51.9180374	    -45.6552696
    -38.7242966	     45.5706253	    -46.1802139
    -44.2777443	     38.0638847	    -46.8635712
    -48.9972076	     29.4942665	    -47.7211723
    -52.8174553	     19.9947014	    -48.7583961
    -55.6907921	      9.7369614	    -49.9644508
    -57.5854530	     -1.0707531	    -51.3087883
    -58.4838791	    -12.1917973	    -52.7418060
    -57.7664948	    -22.8612041	    -54.1344109
    -56.8459740	    -32.9099312	    -55.4337387
    -54.9375648	    -42.6361771	    -56.6569977
    -52.0609703	    -51.8408470	    -57.7640953
    -48.2510033	    -60.3469849	    -58.7287407
    -43.5589066	    -68.0047302	    -59.5391731
    -38.0534363	    -74.6930084	    -60.1959686
    -31.8216438	    -80.3183289	    -60.7082863
    -24.9689674	    -84.8117599	    -61.0897179
    -17.6186600	    -88.1248016	    -61.3546638
     -9.9096174	    -90.2255249	    -61.5156136
     -1.9930354	    -91.0952377	    -61.5813103
      5.9674573	    -90.6669159	    -61.5514069
     13.7997551	    -88.9857483	    -61.4276390
     21.3476887	    -86.0884781	    -61.2051926
     28.4656124	    -82.0037231	    -60.8734970
     35.0221596	    -76.7744293	    -60.4190140
     40.9028435	    -70.4616394	    -59.8275108
     46.0113487	    -63.1485291	    -59.0872498
     50.2698555	    -54.9440041	    -58.1929588
     53.6184921	    -45.9850006	    -57.1499252
     56.0143585	    -36.4364433	    -55.9770927
     57.4304008	    -26.4878292	    -54.7079887
     52.3312340	    -16.0708694	    -59.3345222
     52.6279335	     -4.7755384	    -57.7784843
     51.0229034	      6.2490501	    -56.2952690
     48.2948265	     16.7156105	    -54.9523544
     44.4829292	     26.3579292	    -53.7956123
     39.6496391	     34.9532661	    -52.8454971
     33.8824081	     42.3279953	    -52.1003571
     27.2948074	     48.3558731	    -51.5438385
     20.0264206	     52.9511108	    -51.1530991
     12.2410231	     56.0588379	    -50.9056435
      4.1225815	     57.6460648	    -50.7840691
     -4.1225801	     57.5437698	    -50.7900009
    -12.2410212	     55.7551193	    -50.9232521
    -20.0264244	     52.4542160	    -51.1819077
    -27.2948132	     47.6786499	    -51.5831032
    -33.8824043	     41.4873199	    -52.1491013
    -39.6496429	     33.9694939	    -52.9025383
    -44.4829292	     25.2542381	    -53.8596077
    -48.2948265	     15.5173492	    -55.0218315
    -51.0229034	      4.9830933	    -56.3686714
    -52.6279335	     -6.0813150	    -57.8541985
    -52.5509224	    -17.3720188	    -59.4099655
    -52.0530510	    -27.6208344	    -60.8236427
    -50.4217377	    -37.6035004	    -62.1738091
    -47.6787338	    -47.0670013	    -63.4053459
    -43.8674355	    -55.7833214	    -64.4796143
    -39.0546036	    -63.5577316	    -65.3767929
    -33.3317375	    -70.2323914	    -66.0938110
    -26.8156624	    -75.6858215	    -66.6393967
    -19.6479816	    -79.8294373	    -67.0283585
    -11.9929495	    -82.6026993	    -67.2762527
     -4.0333362	    -83.9682617	    -67.3955231
      4.0333376	    -83.8681946	    -67.3897247
     11.9929514	    -82.3051300	    -67.2589951
     19.6479836	    -79.3419495	    -67.0000916
     26.8156643	    -75.0204773	    -66.6008224
     33.3317375	    -69.4053802	    -66.0458527
     39.0546112	    -62.5887146	    -65.3206024
     43.8674355	    -54.6948929	    -64.4165039
     47.6787338	    -45.8840179	    -63.3367577
     50.4217300	    -36.3524742	    -62.1012688
     52.0530510	    -26.3293324	    -60.7487564
     46.5293617	    -15.8340034	    -64.6651917
     46.5645485	     -4.8155298	    -63.0703239
     44.8082390	      5.8946018	    -61.5556908
     41.8372192	     15.9652939	    -60.1956253
     37.7094688	     25.0952492	    -59.0393677
     32.5152168	     33.0346985	    -58.1076851
     26.3781128	     39.5910530	    -57.3977013
     19.4549789	     44.6259460	    -56.8921051
     11.9333401	     48.0466614	    -56.5688934
      4.0263252	     49.7959976	    -56.4091339
     -4.0263238	     49.6960983	    -56.4149246
    -11.9333391	     47.7505798	    -56.5860672
    -19.4549770	     44.1432343	    -56.9200935
    -26.3781147	     38.9365730	    -57.4356499
    -32.5152168	     32.2279472	    -58.1544647
    -37.7094727	     24.1596146	    -59.0936203
    -41.8372116	     14.9272499	    -60.2558060
    -44.8082428	      4.7828369	    -61.6201591
    -46.5645485	     -5.9708643	    -63.1373024
    -46.6891365	    -16.9904556	    -64.7322464
    -46.1335678	    -27.0071297	    -66.1837921
    -44.3434525	    -36.7159729	    -67.5639038
    -41.3521957	    -45.8255310	    -68.8112106
    -37.2231178	    -54.0751381	    -69.8835220
    -32.0513000	    -61.2445831	    -70.7601471
    -25.9642410	    -67.1582336	    -71.4385605
    -19.1212997	    -71.6840820	    -71.9280777
    -11.7109098	    -74.7296982	    -72.2427673
     -3.9451928	    -76.2371368	    -72.3954315
      3.9451938	    -76.1392517	    -72.3897552
     11.7109108	    -74.4391327	    -72.2259140
     19.1213017	    -71.2096558	    -71.9005661
     25.9642410	    -66.5140228	    -71.4012070
     32.0513000	    -60.4493408	    -70.7140427
     37.2231293	    -53.1515579	    -69.8299713
     41.3521881	    -44.7995338	    -68.7517166
     44.3434525	    -35.6157417	    -67.5001144
     46.1335678	    -25.8624840	    -66.1174164
     40.2141609	    -15.6422844	    -69.3274078
     39.9314804	     -4.4253731	    -67.6356277
     37.7703438	      6.3627071	    -66.0480194
     34.1510658	     16.2661705	    -64.6581726
     29.1853619	     24.8849907	    -63.5232124
     23.0412979	     31.9003906	    -62.6622887
     15.9416561	     37.0794640	    -62.0673714
      8.1580553	     40.2671890	    -61.7186432
     -0.0000018	     41.3734016	    -61.5982246
     -8.1580544	     40.0647774	    -61.7303810
    -15.9416552	     36.6839256	    -62.0903053
    -23.0412941	     31.3287048	    -62.6954384
    -29.1853638	     24.1608543	    -63.5651970
